ply
format ascii 1.0
comment Created by Open3D
obj_info Generated by CloudCompare!
element vertex 689
property float x
property float y
property float z
property uchar red
property uchar green
property uchar blue
property float nx
property float ny
property float nz
end_header
-72.130127 20.795143 -26.090637 255 0 0 -0.141264 0.047088 -0.988851 
-71.549805 20.795143 -26.138977 255 0 0 -0.186312 0.046281 -0.981400 
-70.969467 20.843498 -26.187317 255 0 0 -0.242546 0.048017 -0.968951 
-70.340775 20.843498 -26.332458 255 0 0 -0.286225 0.046653 -0.957026 
-69.760452 20.843498 -26.574280 255 0 0 -0.388005 0.048997 -0.920354 
-69.228485 20.891869 -26.864441 255 0 0 -0.464599 0.047686 -0.884236 
-68.648148 20.940224 -27.154602 255 0 0 -0.485314 0.048119 -0.873015 
-68.067825 20.988579 -27.493103 255 0 0 -0.519994 0.048533 -0.852790 
-67.535858 20.988579 -27.831604 255 0 0 -0.519994 0.048533 -0.852790 
-66.955521 21.036949 -28.170105 255 0 0 -0.519994 0.048533 -0.852790 
-66.375198 21.085304 -28.508606 255 0 0 -0.519994 0.048533 -0.852790 
-65.843216 21.133675 -28.847229 255 0 0 -0.482601 0.097652 -0.870380 
-65.262894 21.182030 -29.137390 255 0 0 -0.425646 0.095666 -0.899819 
-64.682571 21.182030 -29.427551 255 0 0 -0.383656 0.144749 -0.912061 
-64.102234 21.230385 -29.669373 255 0 0 -0.335624 0.239732 -0.910980 
-63.521912 21.230385 -29.862732 255 0 0 -0.239732 0.335624 -0.910980 
-62.941574 21.278755 -30.007874 255 0 0 -0.099541 0.444432 -0.890265 
-62.361252 21.278755 -30.056213 255 0 0 0.001351 0.544370 -0.838844 
-61.732559 21.278755 -30.007874 255 0 0 0.101500 0.651660 -0.751689 
-61.103867 21.230385 -29.911072 255 0 0 0.195644 0.740984 -0.642391 
-60.523529 21.230385 -29.717712 255 0 0 0.242021 0.776029 -0.582412 
-59.894852 21.182030 -29.475891 255 0 0 0.255629 0.819562 -0.512807 
-59.217789 21.182030 -29.137390 255 0 0 0.251577 0.855363 -0.452839 
-58.589096 21.133675 -28.798767 255 0 0 0.245565 0.885524 -0.394393 
-57.912048 21.085304 -28.315247 255 0 0 0.250878 0.902281 -0.350642 
-57.283356 20.988579 -27.734924 255 0 0 0.255724 0.917428 -0.304846 
-56.557953 20.940224 -27.057800 255 0 0 0.200390 0.947423 -0.249465 
-55.880905 20.843498 -26.187317 255 0 0 0.200809 0.958828 -0.200809 
-55.155487 20.698418 -25.075012 255 0 0 0.153653 0.967107 -0.202718 
-54.381714 20.553337 -23.914368 255 0 0 0.097340 0.984214 -0.147812 
-53.656296 20.456612 -22.947205 255 0 0 0.098673 0.990216 -0.098673 
-51.915314 19.924644 -18.352844 255 0 0 0.050355 0.997461 -0.050355 
-51.141541 19.779564 -16.902039 255 0 0 -0.147635 0.989041 0.001110 
-50.464493 19.731209 -16.660217 255 0 0 -0.344659 0.938727 0.001253 
-51.818588 22.100883 -37.455383 255 0 0 -0.786666 -0.138823 -0.601568 
-51.286621 22.149239 -37.745544 255 0 0 -0.716594 -0.192633 -0.670362 
-50.754654 22.197609 -38.277527 255 0 0 -0.612853 -0.236677 -0.753919 
-50.174316 22.245964 -38.616028 255 0 0 -0.506415 -0.231023 -0.830766 
-49.593994 22.294319 -38.857849 255 0 0 -0.421312 -0.185144 -0.887816 
-49.062027 22.294319 -39.148010 255 0 0 -0.383656 -0.144749 -0.912061 
-48.481689 22.342690 -39.389832 255 0 0 -0.383656 -0.144749 -0.912061 
-47.901367 22.342690 -39.631653 255 0 0 -0.426685 -0.047110 -0.903172 
-47.369400 22.391045 -39.921814 255 0 0 -0.465583 0.001319 -0.885003 
-46.789063 22.439415 -40.211975 255 0 0 -0.465583 0.001319 -0.885003 
-46.257095 22.439415 -40.550476 255 0 0 -0.484515 0.001327 -0.874782 
-45.676773 22.487770 -40.840637 255 0 0 -0.519994 0.048533 -0.852790 
-45.144806 22.536125 -41.179138 255 0 0 -0.519994 0.048533 -0.852790 
-44.564468 22.584496 -41.469299 255 0 0 -0.519994 0.048533 -0.852790 
-44.032501 22.584496 -41.807922 255 0 0 -0.519994 0.048533 -0.852790 
-43.452179 22.632851 -42.146423 255 0 0 -0.519994 0.048533 -0.852790 
-42.920197 22.681206 -42.484924 255 0 0 -0.519994 0.048533 -0.852790 
-42.339874 22.729576 -42.823425 255 0 0 -0.519994 0.048533 -0.852790 
-41.807907 22.777931 -43.161926 255 0 0 -0.519994 0.048533 -0.852790 
-41.275940 22.777931 -43.500549 255 0 0 -0.519994 0.048533 -0.852790 
-40.695602 22.826302 -43.790710 255 0 0 -0.519994 0.048533 -0.852790 
-40.163635 22.874657 -44.129211 255 0 0 -0.519994 0.048533 -0.852790 
-39.583313 22.923012 -44.467712 255 0 0 -0.519994 0.048533 -0.852790 
-39.051346 22.971382 -44.806213 255 0 0 -0.482601 0.097652 -0.870380 
-38.471008 22.971382 -45.096375 255 0 0 -0.482601 0.097652 -0.870380 
-37.939041 23.019737 -45.386536 255 0 0 -0.423793 0.141264 -0.894675 
-37.358719 23.068092 -45.676697 255 0 0 -0.379017 0.234489 -0.895188 
-36.826736 23.068092 -45.918518 255 0 0 -0.326732 0.326732 -0.886844 
-36.246414 23.116463 -46.112000 255 0 0 -0.239858 0.435968 -0.867410 
-35.666077 23.116463 -46.305481 255 0 0 -0.191948 0.533526 -0.823715 
-35.085754 23.116463 -46.450500 255 0 0 -0.145777 0.623687 -0.767961 
-34.505417 23.164818 -46.547180 255 0 0 -0.098372 0.726777 -0.679793 
-33.925095 23.164818 -46.595642 255 0 0 -0.049528 0.799527 -0.598584 
-33.344772 23.164818 -46.692322 255 0 0 -0.048831 0.838494 -0.542719 
-32.764435 23.164818 -46.740662 255 0 0 -0.101341 0.857827 -0.503848 
-32.184113 23.164818 -46.837463 255 0 0 -0.099541 0.890265 -0.444432 
-31.603775 23.213188 -47.030823 255 0 0 -0.148193 0.884839 -0.441700 
-31.023453 23.213188 -47.224304 255 0 0 -0.199512 0.895620 -0.397568 
-30.491470 23.261543 -47.417786 255 0 0 -0.290210 0.873667 -0.390491 
-29.911148 23.261543 -47.659485 255 0 0 -0.392854 0.831463 -0.392854 
-29.379181 23.309898 -48.046448 255 0 0 -0.432484 0.815496 -0.384608 
-28.847214 23.358269 -48.578430 255 0 0 -0.496560 0.744015 -0.447069 
-28.363602 23.454979 -49.158752 255 0 0 -0.585284 0.681997 -0.438546 
-27.831635 23.503349 -49.787415 255 0 0 -0.635449 0.635449 -0.438644 
-27.348022 23.600075 -50.512878 255 0 0 -0.727217 0.485364 -0.485364 
-26.864410 23.696785 -51.238220 255 0 0 -0.780241 0.390932 -0.488259 
-26.332443 23.745155 -51.866882 255 0 0 -0.776029 0.242021 -0.582412 
-25.848846 23.841866 -52.447205 255 0 0 -0.762325 0.191732 -0.618142 
-25.316879 23.890236 -52.930847 255 0 0 -0.679793 0.098372 -0.726777 
-24.784897 23.938591 -53.366150 255 0 0 -0.606788 0.046676 -0.793492 
-24.252930 23.986961 -53.704651 255 0 0 -0.574936 0.049200 -0.816718 
-23.720963 23.986961 -54.043152 255 0 0 -0.522373 0.001343 -0.852716 
-23.140640 24.035316 -54.333313 255 0 0 -0.522373 0.001343 -0.852716 
-22.608673 24.083672 -54.623474 255 0 0 -0.522373 0.001343 -0.852716 
-22.076706 24.083672 -54.961975 255 0 0 -0.522373 0.001343 -0.852716 
-21.496368 24.132042 -55.252136 255 0 0 -0.519994 0.048533 -0.852790 
-20.964401 24.180397 -55.590759 255 0 0 -0.519994 0.048533 -0.852790 
-20.432434 24.228752 -55.929260 255 0 0 -0.519994 0.048533 -0.852790 
-19.900467 24.277122 -56.267761 255 0 0 -0.519994 0.048533 -0.852790 
-19.368500 24.277122 -56.557922 255 0 0 -0.519994 0.048533 -0.852790 
-18.788162 24.325478 -56.896423 255 0 0 -0.519994 0.048533 -0.852790 
-18.256195 24.373848 -57.234924 255 0 0 -0.519994 0.048533 -0.852790 
-17.724228 24.422203 -57.525085 255 0 0 -0.519994 0.048533 -0.852790 
-17.192261 24.422203 -57.863708 255 0 0 -0.519994 0.048533 -0.852790 
-16.660294 24.470558 -58.202209 255 0 0 -0.519994 0.048533 -0.852790 
-16.079956 24.518929 -58.540710 255 0 0 -0.519994 0.048533 -0.852790 
-15.547989 24.567284 -58.879211 255 0 0 -0.519994 0.048533 -0.852790 
-15.016022 24.567284 -59.169373 255 0 0 -0.519994 0.048533 -0.852790 
-14.484055 24.615639 -59.507996 255 0 0 -0.519994 0.048533 -0.852790 
-13.952087 24.664009 -59.798157 255 0 0 -0.519994 0.048533 -0.852790 
-13.371750 24.712364 -60.136658 255 0 0 -0.519994 0.048533 -0.852790 
-12.839783 24.712364 -60.426819 255 0 0 -0.519994 0.048533 -0.852790 
-12.307816 24.760735 -60.765320 255 0 0 -0.518422 0.095687 -0.849755 
-11.775848 24.809090 -61.103821 255 0 0 -0.482601 0.097652 -0.870380 
-11.243880 24.857445 -61.393982 255 0 0 -0.481083 0.143889 -0.864786 
-10.711913 24.857445 -61.732483 255 0 0 -0.481083 0.143889 -0.864786 
-10.131577 24.905815 -62.022644 255 0 0 -0.437939 0.196114 -0.877353 
-9.599609 24.954170 -62.312805 255 0 0 -0.435968 0.239858 -0.867410 
-9.067641 24.954170 -62.602966 255 0 0 -0.427820 0.286747 -0.857174 
-8.535674 25.002525 -62.844788 255 0 0 -0.383499 0.334214 -0.860947 
-7.955338 25.050896 -63.134949 255 0 0 -0.392854 0.392854 -0.831463 
-7.423369 25.050896 -63.376770 255 0 0 -0.400339 0.448572 -0.799069 
-6.891403 25.099251 -63.666931 255 0 0 -0.390932 0.488259 -0.780241 
-6.311080 25.147621 -63.908752 255 0 0 -0.435362 0.531373 -0.726707 
-5.779113 25.147621 -64.198914 255 0 0 -0.435362 0.531373 -0.726707 
-5.247147 25.195976 -64.537415 255 0 0 -0.438546 0.585284 -0.681997 
-4.715164 25.244331 -64.827576 255 0 0 -0.477187 0.570951 -0.668063 
-4.183197 25.292702 -65.166199 255 0 0 -0.490951 0.537868 -0.685321 
-3.651229 25.292702 -65.504700 255 0 0 -0.525225 0.525225 -0.669536 
-3.119262 25.341057 -65.891541 255 0 0 -0.570951 0.477187 -0.668063 
-2.587296 25.389412 -66.278503 255 0 0 -0.613798 0.427496 -0.663701 
-2.055329 25.437782 -66.665344 255 0 0 -0.638804 0.344726 -0.687818 
-1.571715 25.486137 -67.052185 255 0 0 -0.654398 0.279999 -0.702398 
-1.039749 25.534508 -67.439148 255 0 0 -0.662813 0.237731 -0.710044 
-0.507782 25.582863 -67.825989 255 0 0 -0.623687 0.145777 -0.767961 
0.024185 25.631218 -68.212830 255 0 0 -0.606349 0.094515 -0.789562 
0.556153 25.679588 -68.551453 255 0 0 -0.574928 0.097028 -0.812430 
1.088120 25.679588 -68.889954 255 0 0 -0.574936 0.049200 -0.816718 
1.620088 25.727943 -69.180115 255 0 0 -0.519994 0.048533 -0.852790 
2.152070 25.776299 -69.518616 255 0 0 -0.519994 0.048533 -0.852790 
2.684036 25.824669 -69.808777 255 0 0 -0.519994 0.048533 -0.852790 
3.216003 25.824669 -70.147278 255 0 0 -0.519994 0.048533 -0.852790 
3.747971 25.873024 -70.485779 255 0 0 -0.519994 0.048533 -0.852790 
4.279939 25.921379 -70.824402 255 0 0 -0.519994 0.048533 -0.852790 
4.811905 25.969749 -71.114563 255 0 0 -0.519994 0.048533 -0.852790 
5.343873 25.969749 -71.453064 255 0 0 -0.519994 0.048533 -0.852790 
5.875840 26.018105 -71.743225 255 0 0 -0.519994 0.048533 -0.852790 
6.407806 26.066475 -72.033386 255 0 0 -0.519994 0.048533 -0.852790 
6.939789 26.066475 -72.323547 255 0 0 -0.519994 0.048533 -0.852790 
7.471756 26.114830 -72.662048 255 0 0 -0.519994 0.048533 -0.852790 
8.003723 26.163185 -72.952209 255 0 0 -0.519994 0.048533 -0.852790 
8.535690 26.211555 -73.290710 255 0 0 -0.519994 0.048533 -0.852790 
9.067657 26.211555 -73.580872 255 0 0 -0.519994 0.048533 -0.852790 
9.599625 26.259911 -73.919495 255 0 0 -0.519994 0.048533 -0.852790 
10.131593 26.308266 -74.257996 255 0 0 -0.519994 0.048533 -0.852790 
10.663560 26.356636 -74.596497 255 0 0 -0.519994 0.048533 -0.852790 
11.195526 26.404991 -74.886658 255 0 0 -0.519994 0.048533 -0.852790 
11.727509 26.404991 -75.225159 255 0 0 -0.519994 0.048533 -0.852790 
12.259477 26.453362 -75.515320 255 0 0 -0.519994 0.048533 -0.852790 
12.743073 26.501717 -75.805481 255 0 0 -0.519994 0.048533 -0.852790 
13.275041 26.501717 -76.144104 255 0 0 -0.519994 0.048533 -0.852790 
13.807022 26.550072 -76.482605 255 0 0 -0.519994 0.048533 -0.852790 
14.338989 26.598442 -76.772766 255 0 0 -0.519994 0.048533 -0.852790 
14.870956 26.646797 -77.111267 255 0 0 -0.519994 0.048533 -0.852790 
15.402924 26.646797 -77.449768 255 0 0 -0.519994 0.048533 -0.852790 
15.934892 26.695152 -77.739929 255 0 0 -0.519994 0.048533 -0.852790 
16.466858 26.743523 -78.078430 255 0 0 -0.519994 0.048533 -0.852790 
16.998825 26.791878 -78.368591 255 0 0 -0.485314 0.048119 -0.873015 
17.482437 26.791878 -78.707214 255 0 0 -0.482601 0.097652 -0.870380 
18.014404 26.840248 -78.997375 255 0 0 -0.482601 0.097652 -0.870380 
18.546371 26.888603 -79.287537 255 0 0 -0.482601 0.097652 -0.870380 
19.078339 26.936958 -79.626038 255 0 0 -0.518422 0.095687 -0.849755 
19.610306 26.936958 -79.916199 255 0 0 -0.518422 0.095687 -0.849755 
20.142273 26.985329 -80.206360 255 0 0 -0.518422 0.095687 -0.849755 
20.674255 27.033684 -80.544861 255 0 0 -0.518422 0.095687 -0.849755 
21.206223 27.082039 -80.883362 255 0 0 -0.519994 0.048533 -0.852790 
21.689819 27.082039 -81.221985 255 0 0 -0.574936 0.049200 -0.816718 
22.221802 27.130409 -81.560486 255 0 0 -0.574936 0.049200 -0.816718 
22.753769 27.178764 -81.850647 255 0 0 -0.574936 0.049200 -0.816718 
23.285736 27.227135 -82.189148 255 0 0 -0.574936 0.049200 -0.816718 
23.769333 27.227135 -82.527649 255 0 0 -0.574936 0.049200 -0.816718 
24.301315 27.275490 -82.817810 255 0 0 -0.574936 0.049200 -0.816718 
24.833282 27.323845 -83.156311 255 0 0 -0.554433 0.046086 -0.830951 
25.365250 27.372215 -83.446472 255 0 0 -0.519994 0.048533 -0.852790 
25.897202 27.372215 -83.736755 255 0 0 -0.519994 0.048533 -0.852790 
26.429184 27.420570 -84.075256 255 0 0 -0.519994 0.048533 -0.852790 
26.912796 27.468925 -84.365417 255 0 0 -0.519994 0.048533 -0.852790 
27.444748 27.517296 -84.703918 255 0 0 -0.519994 0.048533 -0.852790 
27.976730 27.517296 -84.994080 255 0 0 -0.519994 0.048533 -0.852790 
28.508713 27.565651 -85.332581 255 0 0 -0.519994 0.048533 -0.852790 
28.992294 27.614021 -85.671082 255 0 0 -0.519994 0.048533 -0.852790 
29.524277 27.662376 -85.961243 255 0 0 -0.519994 0.048533 -0.852790 
30.056259 27.662376 -86.251404 255 0 0 -0.519994 0.048533 -0.852790 
30.588211 27.710732 -86.590027 255 0 0 -0.519994 0.048533 -0.852790 
31.071823 27.759102 -86.880188 255 0 0 -0.519994 0.048533 -0.852790 
31.603775 27.807457 -87.218689 255 0 0 -0.519994 0.048533 -0.852790 
32.135757 27.807457 -87.508850 255 0 0 -0.519994 0.048533 -0.852790 
32.667740 27.855812 -87.847351 255 0 0 -0.519994 0.048533 -0.852790 
33.151321 27.904182 -88.137512 255 0 0 -0.519994 0.048533 -0.852790 
33.683304 27.952538 -88.476013 255 0 0 -0.519994 0.048533 -0.852790 
34.215286 27.952538 -88.766174 255 0 0 -0.519994 0.048533 -0.852790 
34.698868 28.000908 -89.104797 255 0 0 -0.464599 0.047686 -0.884236 
35.230850 28.049263 -89.346497 255 0 0 -0.388005 0.048997 -0.920354 
35.762833 28.049263 -89.588318 255 0 0 -0.242546 0.048017 -0.968951 
36.343155 28.049263 -89.685120 255 0 0 -0.047775 0.094439 -0.994384 
36.923477 28.049263 -89.636658 255 0 0 0.240530 0.095448 -0.965937 
37.552170 28.049263 -89.443298 255 0 0 0.444432 0.099541 -0.890265 
38.180862 28.000908 -89.056335 255 0 0 0.595795 0.100513 -0.796822 
38.906265 27.904182 -88.427673 255 0 0 0.679793 0.098372 -0.726777 
39.631668 27.855812 -87.653870 255 0 0 0.726777 0.098372 -0.679793 
40.357101 27.710732 -86.686707 255 0 0 0.772967 0.097899 -0.626848 
41.179214 27.614021 -85.574402 255 0 0 0.796822 0.100513 -0.595795 
42.001358 27.468925 -84.413757 255 0 0 0.796822 0.100513 -0.595795 
42.823502 27.323845 -83.156311 255 0 0 0.836039 0.099289 -0.539612 
43.645615 27.178764 -81.802307 255 0 0 0.836039 0.099289 -0.539612 
44.516129 27.033684 -80.448181 255 0 0 0.836039 0.099289 -0.539612 
45.338272 26.840248 -79.045715 255 0 0 0.836039 0.099289 -0.539612 
46.208755 26.695152 -77.643250 255 0 0 0.836039 0.099289 -0.539612 
47.079239 26.550072 -76.192444 255 0 0 0.836039 0.099289 -0.539612 
47.949753 26.356636 -74.789978 255 0 0 0.836039 0.099289 -0.539612 
48.771866 26.211555 -73.387512 255 0 0 0.836039 0.099289 -0.539612 
49.642380 26.066475 -71.985046 255 0 0 0.836039 0.099289 -0.539612 
50.512863 25.873024 -70.534241 255 0 0 0.836039 0.099289 -0.539612 
51.431717 25.727943 -69.034973 255 0 0 0.836039 0.099289 -0.539612 
52.302200 25.534508 -67.487488 255 0 0 0.836039 0.099289 -0.539612 
53.027634 25.437782 -66.762024 255 0 0 0.836039 0.099289 -0.539612 
-72.130127 21.423836 -26.042297 255 0 0 -0.141264 0.047088 -0.988851 
-71.549805 21.423836 -26.090637 255 0 0 -0.186312 0.046281 -0.981400 
-70.921112 21.423836 -26.138977 255 0 0 -0.242546 0.048017 -0.968951 
-70.340775 21.423836 -26.284119 255 0 0 -0.286225 0.046653 -0.957026 
-69.760452 21.472191 -26.525818 255 0 0 -0.388005 0.048997 -0.920354 
-69.228485 21.520561 -26.815979 255 0 0 -0.464599 0.047686 -0.884236 
-68.648148 21.520561 -27.106140 255 0 0 -0.485314 0.048119 -0.873015 
-68.067825 21.568916 -27.444763 255 0 0 -0.519994 0.048533 -0.852790 
-67.487488 21.617271 -27.783264 255 0 0 -0.519994 0.048533 -0.852790 
-66.955521 21.665642 -28.170105 255 0 0 -0.519994 0.048533 -0.852790 
-66.375198 21.665642 -28.460266 255 0 0 -0.485314 0.048119 -0.873015 
-65.794861 21.713997 -28.798767 255 0 0 -0.464780 0.094079 -0.880414 
-65.262894 21.762352 -29.089050 255 0 0 -0.423793 0.141264 -0.894675 
-64.682571 21.762352 -29.330750 255 0 0 -0.338985 0.194313 -0.920506 
-64.102234 21.810722 -29.524231 255 0 0 -0.243673 0.292123 -0.924818 
-63.521912 21.810722 -29.669373 255 0 0 -0.144749 0.383656 -0.912061 
-62.893219 21.810722 -29.717712 255 0 0 0.001327 0.484515 -0.874782 
-62.312881 21.810722 -29.669373 255 0 0 0.148033 0.593629 -0.791006 
-61.684189 21.810722 -29.524231 255 0 0 0.251159 0.658700 -0.709248 
-61.055511 21.762352 -29.282410 255 0 0 0.300752 0.699611 -0.648145 
-60.426819 21.762352 -28.943909 255 0 0 0.352208 0.754732 -0.553470 
-59.749756 21.713997 -28.508606 255 0 0 0.347114 0.795003 -0.497477 
-59.121078 21.617271 -28.025085 255 0 0 0.355101 0.813708 -0.460199 
-58.444016 21.568916 -27.396423 255 0 0 0.350740 0.846453 -0.400623 
-57.718613 21.472191 -26.622620 255 0 0 0.355830 0.864159 -0.355830 
-57.041565 21.375465 -25.752136 255 0 0 0.345513 0.889958 -0.297650 
-56.316147 21.278755 -24.784851 255 0 0 0.350642 0.902281 -0.250878 
-55.590729 21.133675 -23.720886 255 0 0 0.354995 0.912640 -0.202649 
-54.816956 21.036949 -22.608704 255 0 0 0.308527 0.928398 -0.207093 
-54.091553 20.891869 -21.399597 255 0 0 0.356657 0.921713 -0.152453 
-53.366135 20.746788 -20.287292 255 0 0 0.356657 0.921713 -0.152453 
-52.592361 20.601692 -19.078308 255 0 0 0.253053 0.962116 -0.101478 
-51.866959 20.504982 -18.062683 255 0 0 0.155268 0.986475 -0.052534 
-51.093185 20.359901 -16.611877 255 0 0 -0.050193 0.998739 0.001024 
-50.271042 20.166451 -14.967590 255 0 0 0.000978 0.999999 0.000978 
-49.255463 19.779564 -11.533997 255 0 0 -0.196558 0.980491 0.001149 
-48.578415 19.731209 -11.243836 255 0 0 -0.542719 0.838494 0.048831 
-50.803009 22.874657 -38.761169 255 0 0 -0.574798 -0.288195 -0.765866 
-50.222687 22.874657 -38.954651 255 0 0 -0.465445 -0.279886 -0.839657 
-49.642349 22.874657 -39.099670 255 0 0 -0.379017 -0.234489 -0.895188 
-49.062027 22.923012 -39.244812 255 0 0 -0.338985 -0.194313 -0.920506 
-48.481689 22.923012 -39.389832 255 0 0 -0.326993 -0.140922 -0.934461 
-47.901367 22.971382 -39.631653 255 0 0 -0.386776 -0.097036 -0.917054 
-47.369400 22.971382 -39.921814 255 0 0 -0.426685 -0.047110 -0.903172 
-46.789063 23.019737 -40.211975 255 0 0 -0.465583 0.001319 -0.885003 
-46.257095 23.068092 -40.502136 255 0 0 -0.484515 0.001327 -0.874782 
-45.676773 23.068092 -40.792297 255 0 0 -0.484515 0.001327 -0.874782 
-45.144806 23.116463 -41.130798 255 0 0 -0.519994 0.048533 -0.852790 
-44.564468 23.164818 -41.469299 255 0 0 -0.519994 0.048533 -0.852790 
-44.032501 23.213188 -41.759583 255 0 0 -0.519994 0.048533 -0.852790 
-43.452179 23.261543 -42.098083 255 0 0 -0.519994 0.048533 -0.852790 
-42.920197 23.261543 -42.436584 255 0 0 -0.519994 0.048533 -0.852790 
-42.339874 23.309898 -42.775085 255 0 0 -0.519994 0.048533 -0.852790 
-41.807907 23.358269 -43.113586 255 0 0 -0.519994 0.048533 -0.852790 
-41.227570 23.406624 -43.452209 255 0 0 -0.519994 0.048533 -0.852790 
-40.695602 23.406624 -43.790710 255 0 0 -0.519994 0.048533 -0.852790 
-40.163635 23.454979 -44.080872 255 0 0 -0.519994 0.048533 -0.852790 
-39.583313 23.503349 -44.419373 255 0 0 -0.482601 0.097652 -0.870380 
-39.051346 23.551704 -44.757874 255 0 0 -0.482601 0.097652 -0.870380 
-38.471008 23.551704 -45.048035 255 0 0 -0.423793 0.141264 -0.894675 
-37.939041 23.600075 -45.289856 255 0 0 -0.379017 0.234489 -0.895188 
-37.358719 23.648430 -45.531677 255 0 0 -0.289554 0.289554 -0.912314 
-36.778381 23.648430 -45.725159 255 0 0 -0.239858 0.435968 -0.867410 
-36.198059 23.648430 -45.870178 255 0 0 -0.146560 0.537385 -0.830504 
-35.617722 23.696785 -45.966858 255 0 0 -0.049662 0.628585 -0.776154 
-35.037399 23.696785 -45.966858 255 0 0 0.050006 0.730093 -0.681516 
-34.457062 23.696785 -45.966858 255 0 0 0.100513 0.796822 -0.595795 
-33.828369 23.648430 -45.918518 255 0 0 0.048831 0.838494 -0.542719 
-33.248047 23.648430 -45.870178 255 0 0 0.048119 0.873015 -0.485314 
-32.619354 23.648430 -45.870178 255 0 0 0.001310 0.894688 -0.446689 
-32.039017 23.648430 -45.821838 255 0 0 0.001289 0.913864 -0.406019 
-31.458694 23.648430 -45.773499 255 0 0 -0.098132 0.934272 -0.342791 
-30.830002 23.648430 -45.628357 255 0 0 -0.147938 0.943274 -0.297233 
-30.249680 23.648430 -45.725159 255 0 0 -0.255724 0.917428 -0.304846 
-29.717712 23.696785 -46.160339 255 0 0 -0.345513 0.889958 -0.297650 
-29.185730 23.793510 -46.837463 255 0 0 -0.406708 0.860994 -0.305415 
-28.702133 23.841866 -47.611145 255 0 0 -0.478174 0.811783 -0.335198 
-28.218521 23.938591 -48.336609 255 0 0 -0.576148 0.720596 -0.385740 
-27.686554 23.986961 -48.771790 255 0 0 -0.648216 0.648216 -0.399540 
-27.251297 24.132042 -49.835754 255 0 0 -0.726707 0.531373 -0.435362 
-26.767700 24.228752 -50.754578 255 0 0 -0.815496 0.384608 -0.432484 
-26.332443 24.325478 -51.625183 255 0 0 -0.849286 0.235491 -0.472501 
-25.848846 24.422203 -52.350525 255 0 0 -0.789562 0.094515 -0.606349 
-25.316879 24.470558 -52.882507 255 0 0 -0.706322 0.047088 -0.706322 
-24.784897 24.518929 -53.317810 255 0 0 -0.606331 0.001369 -0.795211 
-24.252930 24.567284 -53.704651 255 0 0 -0.553762 0.001354 -0.832674 
-23.720963 24.567284 -54.043152 255 0 0 -0.522373 0.001343 -0.852716 
-23.140640 24.615639 -54.284973 255 0 0 -0.484515 0.001327 -0.874782 
-22.608673 24.664009 -54.623474 255 0 0 -0.484515 0.001327 -0.874782 
-22.076706 24.712364 -54.913635 255 0 0 -0.484515 0.001327 -0.874782 
-21.496368 24.712364 -55.252136 255 0 0 -0.522373 0.001343 -0.852716 
-20.964401 24.760735 -55.542297 255 0 0 -0.522373 0.001343 -0.852716 
-20.432434 24.809090 -55.880920 255 0 0 -0.522373 0.001343 -0.852716 
-19.900467 24.857445 -56.219421 255 0 0 -0.519994 0.048533 -0.852790 
-19.320129 24.857445 -56.557922 255 0 0 -0.519994 0.048533 -0.852790 
-18.788162 24.905815 -56.848083 255 0 0 -0.519994 0.048533 -0.852790 
-18.256195 24.954170 -57.186584 255 0 0 -0.519994 0.048533 -0.852790 
-17.724228 25.002525 -57.525085 255 0 0 -0.519994 0.048533 -0.852790 
-17.192261 25.002525 -57.863708 255 0 0 -0.519994 0.048533 -0.852790 
-16.611923 25.050896 -58.153870 255 0 0 -0.519994 0.048533 -0.852790 
-16.079956 25.099251 -58.492371 255 0 0 -0.519994 0.048533 -0.852790 
-15.547989 25.147621 -58.830872 255 0 0 -0.519994 0.048533 -0.852790 
-15.016022 25.195976 -59.169373 255 0 0 -0.519994 0.048533 -0.852790 
-14.484055 25.195976 -59.459534 255 0 0 -0.519994 0.048533 -0.852790 
-13.952087 25.244331 -59.798157 255 0 0 -0.519994 0.048533 -0.852790 
-13.371750 25.292702 -60.088318 255 0 0 -0.519994 0.048533 -0.852790 
-12.839783 25.292702 -60.426819 255 0 0 -0.482601 0.097652 -0.870380 
-12.307816 25.341057 -60.716980 255 0 0 -0.482601 0.097652 -0.870380 
-11.775848 25.389412 -61.007141 255 0 0 -0.481083 0.143889 -0.864786 
-11.243880 25.437782 -61.345642 255 0 0 -0.437939 0.196114 -0.877353 
-10.663544 25.437782 -61.587463 255 0 0 -0.435968 0.239858 -0.867410 
-10.131577 25.486137 -61.877625 255 0 0 -0.390491 0.290210 -0.873667 
-9.599609 25.534508 -62.119446 255 0 0 -0.375916 0.375916 -0.846980 
-9.019286 25.534508 -62.361267 255 0 0 -0.341972 0.439679 -0.830504 
-8.487320 25.582863 -62.602966 255 0 0 -0.296319 0.540346 -0.787542 
-7.906982 25.582863 -62.844788 255 0 0 -0.299316 0.597031 -0.744288 
-7.375014 25.631218 -63.038269 255 0 0 -0.300752 0.648145 -0.699611 
-6.794693 25.631218 -63.280090 255 0 0 -0.300752 0.699611 -0.648145 
-6.262711 25.679588 -63.521912 255 0 0 -0.290188 0.723066 -0.626871 
-5.730743 25.679588 -63.763733 255 0 0 -0.343081 0.733316 -0.586978 
-5.198775 25.727943 -64.053894 255 0 0 -0.395644 0.740397 -0.543395 
-4.618454 25.776299 -64.344055 255 0 0 -0.395644 0.740397 -0.543395 
-4.086486 25.824669 -64.682556 255 0 0 -0.473998 0.710166 -0.520567 
-3.554504 25.824669 -65.021057 255 0 0 -0.525225 0.669536 -0.525225 
-3.070908 25.873024 -65.456360 255 0 0 -0.576057 0.623358 -0.528756 
-2.538940 25.921379 -65.891541 255 0 0 -0.642867 0.541628 -0.541628 
-2.006973 26.018105 -66.375183 255 0 0 -0.685321 0.490951 -0.537868 
-1.523360 26.066475 -66.810364 255 0 0 -0.720596 0.385740 -0.576148 
-0.991394 26.114830 -67.294006 255 0 0 -0.702398 0.279999 -0.654398 
-0.507782 26.163185 -67.729309 255 0 0 -0.670362 0.192633 -0.716594 
0.024185 26.211555 -68.116150 255 0 0 -0.623687 0.145777 -0.767961 
0.556153 26.259911 -68.502991 255 0 0 -0.606349 0.094515 -0.789562 
1.088120 26.259911 -68.841614 255 0 0 -0.574936 0.049200 -0.816718 
1.620088 26.308266 -69.131775 255 0 0 -0.519994 0.048533 -0.852790 
2.152070 26.356636 -69.470276 255 0 0 -0.519994 0.048533 -0.852790 
2.684036 26.404991 -69.808777 255 0 0 -0.519994 0.048533 -0.852790 
3.216003 26.404991 -70.098938 255 0 0 -0.519994 0.048533 -0.852790 
3.747971 26.453362 -70.437439 255 0 0 -0.519994 0.048533 -0.852790 
4.279939 26.501717 -70.776062 255 0 0 -0.519994 0.048533 -0.852790 
4.811905 26.550072 -71.066223 255 0 0 -0.519994 0.048533 -0.852790 
5.343873 26.550072 -71.404724 255 0 0 -0.519994 0.048533 -0.852790 
5.875840 26.598442 -71.694885 255 0 0 -0.519994 0.048533 -0.852790 
6.407806 26.646797 -71.985046 255 0 0 -0.519994 0.048533 -0.852790 
6.939789 26.646797 -72.275208 255 0 0 -0.519994 0.048533 -0.852790 
7.471756 26.695152 -72.565369 255 0 0 -0.519994 0.048533 -0.852790 
8.003723 26.743523 -72.903870 255 0 0 -0.519994 0.048533 -0.852790 
8.535690 26.791878 -73.194031 255 0 0 -0.519994 0.048533 -0.852790 
9.067657 26.791878 -73.532532 255 0 0 -0.519994 0.048533 -0.852790 
9.599625 26.840248 -73.871033 255 0 0 -0.519994 0.048533 -0.852790 
10.131593 26.888603 -74.209656 255 0 0 -0.519994 0.048533 -0.852790 
10.663560 26.936958 -74.548157 255 0 0 -0.519994 0.048533 -0.852790 
11.195526 26.936958 -74.838318 255 0 0 -0.519994 0.048533 -0.852790 
11.727509 26.985329 -75.176819 255 0 0 -0.519994 0.048533 -0.852790 
12.259477 27.033684 -75.466980 255 0 0 -0.519994 0.048533 -0.852790 
12.791444 27.082039 -75.757141 255 0 0 -0.519994 0.048533 -0.852790 
13.323410 27.082039 -76.095642 255 0 0 -0.519994 0.048533 -0.852790 
13.807022 27.130409 -76.434265 255 0 0 -0.519994 0.048533 -0.852790 
14.338989 27.178764 -76.724426 255 0 0 -0.519994 0.048533 -0.852790 
14.870956 27.227135 -77.062927 255 0 0 -0.518422 0.095687 -0.849755 
15.402924 27.227135 -77.401428 255 0 0 -0.518422 0.095687 -0.849755 
15.934892 27.275490 -77.691589 255 0 0 -0.482601 0.097652 -0.870380 
16.466858 27.323845 -78.030090 255 0 0 -0.481083 0.143889 -0.864786 
16.998825 27.372215 -78.320251 255 0 0 -0.481083 0.143889 -0.864786 
17.530792 27.372215 -78.610413 255 0 0 -0.481083 0.143889 -0.864786 
18.062759 27.420570 -78.900574 255 0 0 -0.478628 0.189364 -0.857355 
18.594742 27.468925 -79.190735 255 0 0 -0.478628 0.189364 -0.857355 
19.126709 27.468925 -79.480896 255 0 0 -0.472501 0.235491 -0.849286 
19.610306 27.517296 -79.819519 255 0 0 -0.527410 0.239732 -0.815088 
20.142273 27.565651 -80.109680 255 0 0 -0.527410 0.239732 -0.815088 
20.674255 27.614021 -80.448181 255 0 0 -0.527410 0.239732 -0.815088 
21.206223 27.614021 -80.786682 255 0 0 -0.560892 0.234612 -0.793950 
21.738190 27.662376 -81.125183 255 0 0 -0.567184 0.190075 -0.801357 
22.221802 27.710732 -81.463684 255 0 0 -0.567184 0.190075 -0.801357 
22.753769 27.759102 -81.802307 255 0 0 -0.567184 0.190075 -0.801357 
23.285736 27.807457 -82.140808 255 0 0 -0.570343 0.144447 -0.808606 
23.817703 27.807457 -82.430969 255 0 0 -0.570343 0.144447 -0.808606 
24.301315 27.855812 -82.769470 255 0 0 -0.574928 0.097028 -0.812430 
24.833282 27.904182 -83.107971 255 0 0 -0.574928 0.097028 -0.812430 
25.365250 27.952538 -83.398132 255 0 0 -0.554433 0.046086 -0.830951 
25.897202 27.952538 -83.736755 255 0 0 -0.519994 0.048533 -0.852790 
26.429184 28.000908 -84.026917 255 0 0 -0.519994 0.048533 -0.852790 
26.912796 28.049263 -84.317078 255 0 0 -0.519994 0.048533 -0.852790 
27.444748 28.049263 -84.655579 255 0 0 -0.519994 0.048533 -0.852790 
27.976730 28.097618 -84.945740 255 0 0 -0.519994 0.048533 -0.852790 
28.508713 28.145988 -85.284241 255 0 0 -0.519994 0.048533 -0.852790 
29.040665 28.194344 -85.622742 255 0 0 -0.519994 0.048533 -0.852790 
29.524277 28.194344 -85.912903 255 0 0 -0.519994 0.048533 -0.852790 
30.056259 28.242699 -86.203064 255 0 0 -0.519994 0.048533 -0.852790 
30.588211 28.291069 -86.541565 255 0 0 -0.519994 0.048533 -0.852790 
31.120193 28.339424 -86.831848 255 0 0 -0.519994 0.048533 -0.852790 
31.603775 28.339424 -87.170349 255 0 0 -0.519994 0.048533 -0.852790 
32.135757 28.387794 -87.508850 255 0 0 -0.519994 0.048533 -0.852790 
32.667740 28.436150 -87.799011 255 0 0 -0.519994 0.048533 -0.852790 
33.151321 28.484505 -88.137512 255 0 0 -0.519994 0.048533 -0.852790 
33.683304 28.484505 -88.427673 255 0 0 -0.519994 0.048533 -0.852790 
34.215286 28.532875 -88.766174 255 0 0 -0.485314 0.048119 -0.873015 
34.747238 28.581230 -89.056335 255 0 0 -0.464599 0.047686 -0.884236 
35.230850 28.581230 -89.298157 255 0 0 -0.388005 0.048997 -0.920354 
35.811172 28.629585 -89.539978 255 0 0 -0.240530 0.095448 -0.965937 
36.343155 28.629585 -89.636658 255 0 0 0.001065 0.094759 -0.995500 
36.923477 28.629585 -89.588318 255 0 0 0.240530 0.095448 -0.965937 
37.552170 28.629585 -89.346497 255 0 0 0.444432 0.099541 -0.890265 
38.229233 28.581230 -88.911316 255 0 0 0.595795 0.100513 -0.796822 
38.906265 28.484505 -88.330994 255 0 0 0.679793 0.098372 -0.726777 
39.631668 28.387794 -87.508850 255 0 0 0.751689 0.101500 -0.651660 
40.405441 28.291069 -86.541565 255 0 0 0.772967 0.097899 -0.626848 
41.179214 28.145988 -85.429382 255 0 0 0.796822 0.100513 -0.595795 
42.001358 28.049263 -84.220276 255 0 0 0.796822 0.100513 -0.595795 
42.823502 27.904182 -82.962952 255 0 0 0.836039 0.099289 -0.539612 
43.693985 27.710732 -81.608826 255 0 0 0.836039 0.099289 -0.539612 
44.516129 27.565651 -80.254700 255 0 0 0.836039 0.099289 -0.539612 
45.386612 27.420570 -78.852234 255 0 0 0.836039 0.099289 -0.539612 
46.257126 27.227135 -77.401428 255 0 0 0.836039 0.099289 -0.539612 
47.127609 27.082039 -75.998962 255 0 0 0.836039 0.099289 -0.539612 
47.949753 26.936958 -74.596497 255 0 0 0.836039 0.099289 -0.539612 
48.820236 26.791878 -73.194031 255 0 0 0.836039 0.099289 -0.539612 
49.690720 26.598442 -71.743225 255 0 0 0.836039 0.099289 -0.539612 
50.561234 26.453362 -70.292419 255 0 0 0.836039 0.099289 -0.539612 
51.431717 26.259911 -68.841614 255 0 0 0.836039 0.099289 -0.539612 
52.350571 26.114830 -67.294006 255 0 0 0.836039 0.099289 -0.539612 
53.075974 26.018105 -66.568665 255 0 0 0.836039 0.099289 -0.539612 
-72.130127 22.004158 -26.090637 255 0 0 -0.094439 0.047775 -0.994384 
-71.549805 22.004158 -26.090637 255 0 0 -0.186312 0.046281 -0.981400 
-70.921112 22.004158 -26.090637 255 0 0 -0.242546 0.048017 -0.968951 
-70.340775 22.052528 -26.235657 255 0 0 -0.286225 0.046653 -0.957026 
-69.760452 22.052528 -26.477478 255 0 0 -0.388005 0.048997 -0.920354 
-69.180115 22.100883 -26.767639 255 0 0 -0.464599 0.047686 -0.884236 
-68.648148 22.149239 -27.106140 255 0 0 -0.485314 0.048119 -0.873015 
-68.067825 22.149239 -27.444763 255 0 0 -0.519994 0.048533 -0.852790 
-67.487488 22.197609 -27.783264 255 0 0 -0.519994 0.048533 -0.852790 
-66.955521 22.245964 -28.121765 255 0 0 -0.519994 0.048533 -0.852790 
-66.375198 22.294319 -28.460266 255 0 0 -0.485314 0.048119 -0.873015 
-65.794861 22.342690 -28.750427 255 0 0 -0.425646 0.095666 -0.899819 
-65.214539 22.342690 -28.992249 255 0 0 -0.383656 0.144749 -0.912061 
-64.634201 22.391045 -29.234070 255 0 0 -0.292123 0.243673 -0.924818 
-64.053879 22.391045 -29.379211 255 0 0 -0.145291 0.341781 -0.928481 
-63.473541 22.391045 -29.427551 255 0 0 0.001300 0.427862 -0.903843 
-62.893219 22.391045 -29.379211 255 0 0 0.146560 0.537385 -0.830504 
-62.264526 22.391045 -29.234070 255 0 0 0.250361 0.603070 -0.757381 
-61.635834 22.342690 -28.992249 255 0 0 0.344726 0.638804 -0.687818 
-60.958786 22.294319 -28.653748 255 0 0 0.398555 0.696231 -0.597006 
-60.330093 22.245964 -28.170105 255 0 0 0.451514 0.701430 -0.551481 
-59.653046 22.197609 -27.589783 255 0 0 0.447069 0.744015 -0.496560 
-58.975983 22.100883 -26.864441 255 0 0 0.457496 0.762493 -0.457496 
-58.250580 22.004158 -26.042297 255 0 0 0.448572 0.799069 -0.400339 
-57.525162 21.907433 -25.075012 255 0 0 0.497477 0.795003 -0.347114 
-56.799759 21.762352 -24.011047 255 0 0 0.465171 0.828536 -0.311680 
-56.074341 21.665642 -22.898865 255 0 0 0.448696 0.843051 -0.296543 
-55.348923 21.520561 -21.786560 255 0 0 0.452839 0.855363 -0.251577 
-54.575150 21.375465 -20.577454 255 0 0 0.493454 0.834722 -0.244421 
-53.849747 21.278755 -19.368469 255 0 0 0.512807 0.819562 -0.255629 
-53.075974 21.133675 -18.111145 255 0 0 0.547070 0.799563 -0.247818 
-52.350555 20.988579 -17.047180 255 0 0 0.461062 0.874128 -0.152718 
-51.576782 20.843498 -15.741394 255 0 0 0.404202 0.909109 -0.100706 
-50.803009 20.698418 -14.435730 255 0 0 0.301309 0.952237 -0.049582 
-50.029236 20.553337 -13.033264 255 0 0 0.301309 0.952237 -0.049582 
-49.207108 20.359901 -11.340637 255 0 0 -0.050193 0.998739 0.001024 
-48.433334 20.166451 -9.793030 255 0 0 -0.405021 0.912969 0.049458 
-47.562836 19.973015 -7.906921 255 0 0 -0.706225 0.706225 0.049935 
-50.271042 23.503349 -39.389832 255 0 0 -0.421787 -0.328403 -0.845131 
-49.690720 23.503349 -39.341492 255 0 0 -0.332473 -0.282232 -0.899893 
-49.062027 23.503349 -39.341492 255 0 0 -0.280380 -0.232476 -0.931312 
-48.481689 23.551704 -39.438171 255 0 0 -0.282314 -0.188668 -0.940587 
-47.901367 23.551704 -39.631653 255 0 0 -0.326993 -0.140922 -0.934461 
-47.369400 23.600075 -39.873474 255 0 0 -0.388005 -0.048997 -0.920354 
-46.789063 23.600075 -40.163635 255 0 0 -0.427862 0.001300 -0.903843 
-46.208740 23.648430 -40.453796 255 0 0 -0.465583 0.001319 -0.885003 
-45.676773 23.696785 -40.792297 255 0 0 -0.484515 0.001327 -0.874782 
-45.096436 23.696785 -41.082458 255 0 0 -0.519994 0.048533 -0.852790 
-44.564468 23.745155 -41.420959 255 0 0 -0.519994 0.048533 -0.852790 
-43.984146 23.793510 -41.759583 255 0 0 -0.519994 0.048533 -0.852790 
-43.452179 23.841866 -42.098083 255 0 0 -0.519994 0.048533 -0.852790 
-42.920197 23.890236 -42.388245 255 0 0 -0.519994 0.048533 -0.852790 
-42.339874 23.890236 -42.726746 255 0 0 -0.519994 0.048533 -0.852790 
-41.807907 23.938591 -43.065247 255 0 0 -0.519994 0.048533 -0.852790 
-41.227570 23.986961 -43.403748 255 0 0 -0.519994 0.048533 -0.852790 
-40.695602 24.035316 -43.742371 255 0 0 -0.519994 0.048533 -0.852790 
-40.115280 24.035316 -44.080872 255 0 0 -0.485314 0.048119 -0.873015 
-39.583313 24.083672 -44.371033 255 0 0 -0.482601 0.097652 -0.870380 
-39.051346 24.132042 -44.661194 255 0 0 -0.423793 0.141264 -0.894675 
-38.471008 24.132042 -44.951355 255 0 0 -0.382080 0.191761 -0.904015 
-37.890686 24.180397 -45.193176 255 0 0 -0.289554 0.289554 -0.912314 
-37.310349 24.180397 -45.338196 255 0 0 -0.191761 0.382080 -0.904015 
-36.730026 24.228752 -45.483337 255 0 0 -0.095687 0.518422 -0.849755 
-36.149689 24.228752 -45.531677 255 0 0 0.049662 0.628585 -0.776154 
-35.569366 24.228752 -45.483337 255 0 0 0.101755 0.703437 -0.703437 
-34.940674 24.228752 -45.386536 255 0 0 0.194583 0.785994 -0.586814 
-34.360336 24.180397 -45.241516 255 0 0 0.191948 0.823715 -0.533526 
-33.731659 24.180397 -45.048035 255 0 0 0.200057 0.843851 -0.497887 
-33.102966 24.132042 -44.854553 255 0 0 0.148193 0.884839 -0.441700 
-32.474274 24.132042 -44.612854 255 0 0 0.149340 0.903153 -0.402508 
-31.845581 24.083672 -44.274231 255 0 0 0.145291 0.928481 -0.341781 
-31.168533 24.035316 -43.935730 255 0 0 0.049582 0.952237 -0.301309 
-30.491470 23.986961 -43.403748 255 0 0 0.050833 0.965824 -0.254164 
-29.911148 23.938591 -43.161926 255 0 0 -0.049039 0.979584 -0.194960 
-27.928360 23.309898 -37.552185 255 0 0 0.001069 0.995047 -0.099398 
-27.251297 23.309898 -37.310364 255 0 0 -0.099268 0.993794 -0.050192 
-27.396393 24.373848 -46.692322 255 0 0 -0.638804 0.687818 -0.344726 
-27.057861 24.567284 -48.530090 255 0 0 -0.733316 0.586978 -0.343081 
-26.719330 24.760735 -50.222717 255 0 0 -0.831463 0.392854 -0.392854 
-26.284088 24.905815 -51.383362 255 0 0 -0.877353 0.196114 -0.437939 
-25.800476 25.002525 -52.253845 255 0 0 -0.816718 0.049200 -0.574936 
-25.316879 25.050896 -52.834167 255 0 0 -0.706322 -0.047088 -0.706322 
-24.784897 25.099251 -53.317810 255 0 0 -0.606349 -0.094515 -0.789562 
-24.252930 25.147621 -53.704651 255 0 0 -0.518422 -0.095687 -0.849755 
-23.720963 25.195976 -54.043152 255 0 0 -0.485314 -0.048119 -0.873015 
-23.140640 25.195976 -54.284973 255 0 0 -0.464599 -0.047686 -0.884236 
-22.608673 25.244331 -54.575134 255 0 0 -0.464599 -0.047686 -0.884236 
-22.076706 25.292702 -54.913635 255 0 0 -0.484515 0.001327 -0.874782 
-21.496368 25.341057 -55.203796 255 0 0 -0.522373 0.001343 -0.852716 
-20.964401 25.341057 -55.542297 255 0 0 -0.522373 0.001343 -0.852716 
-20.432434 25.389412 -55.880920 255 0 0 -0.522373 0.001343 -0.852716 
-19.900467 25.437782 -56.171082 255 0 0 -0.519994 0.048533 -0.852790 
-19.320129 25.486137 -56.509583 255 0 0 -0.519994 0.048533 -0.852790 
-18.788162 25.486137 -56.848083 255 0 0 -0.519994 0.048533 -0.852790 
-18.256195 25.534508 -57.138245 255 0 0 -0.519994 0.048533 -0.852790 
-17.724228 25.582863 -57.476746 255 0 0 -0.519994 0.048533 -0.852790 
-17.192261 25.631218 -57.815247 255 0 0 -0.519994 0.048533 -0.852790 
-16.611923 25.631218 -58.153870 255 0 0 -0.519994 0.048533 -0.852790 
-16.079956 25.679588 -58.444031 255 0 0 -0.519994 0.048533 -0.852790 
-15.547989 25.727943 -58.782532 255 0 0 -0.519994 0.048533 -0.852790 
-15.016022 25.776299 -59.121033 255 0 0 -0.519994 0.048533 -0.852790 
-14.484055 25.776299 -59.411194 255 0 0 -0.519994 0.048533 -0.852790 
-13.903716 25.824669 -59.749695 255 0 0 -0.519994 0.048533 -0.852790 
-13.371750 25.873024 -60.039856 255 0 0 -0.482601 0.097652 -0.870380 
-12.839783 25.921379 -60.330017 255 0 0 -0.482601 0.097652 -0.870380 
-12.307816 25.921379 -60.668640 255 0 0 -0.481083 0.143889 -0.864786 
-11.727492 25.969749 -60.958801 255 0 0 -0.437939 0.196114 -0.877353 
-11.195511 26.018105 -61.200623 255 0 0 -0.394393 0.245565 -0.885524 
-10.663544 26.018105 -61.442322 255 0 0 -0.342376 0.342376 -0.874961 
-10.083221 26.066475 -61.684143 255 0 0 -0.286747 0.427820 -0.857174 
-9.551253 26.066475 -61.877625 255 0 0 -0.239732 0.527410 -0.815088 
-8.970917 26.114830 -62.071106 255 0 0 -0.191732 0.618142 -0.762325 
-8.438950 26.114830 -62.216125 255 0 0 -0.196122 0.693374 -0.693374 
-7.858626 26.114830 -62.409607 255 0 0 -0.145777 0.767961 -0.623687 
-7.278289 26.163185 -62.554626 255 0 0 -0.099289 0.836039 -0.539612 
-6.746323 26.163185 -62.699768 255 0 0 -0.101341 0.857827 -0.503848 
-6.166000 26.211555 -62.893250 255 0 0 -0.148193 0.884839 -0.441700 
-5.634033 26.211555 -63.086609 255 0 0 -0.292252 0.823619 -0.486045 
-5.053696 26.259911 -63.376770 255 0 0 -0.341972 0.830504 -0.439679 
-4.521729 26.259911 -63.618591 255 0 0 -0.390932 0.780241 -0.488259 
-3.989760 26.308266 -63.957092 255 0 0 -0.429489 0.765895 -0.478480 
-3.457793 26.356636 -64.295715 255 0 0 -0.485364 0.727217 -0.485364 
-2.925827 26.404991 -64.827576 255 0 0 -0.589761 0.640168 -0.492308 
-2.442214 26.453362 -65.359558 255 0 0 -0.685321 0.537868 -0.490951 
-1.958603 26.550072 -65.939880 255 0 0 -0.726707 0.435362 -0.531373 
-1.474990 26.598442 -66.520203 255 0 0 -0.755678 0.330307 -0.565550 
-0.943024 26.646797 -67.052185 255 0 0 -0.723066 0.290188 -0.626871 
-0.459426 26.695152 -67.584167 255 0 0 -0.716594 0.192633 -0.670362 
0.072555 26.791878 -68.019470 255 0 0 -0.674907 0.146456 -0.723223 
0.556153 26.791878 -68.406311 255 0 0 -0.626848 0.097899 -0.772967 
1.088120 26.840248 -68.793152 255 0 0 -0.574936 0.049200 -0.816718 
1.620088 26.888603 -69.131775 255 0 0 -0.519994 0.048533 -0.852790 
2.152070 26.936958 -69.421936 255 0 0 -0.519994 0.048533 -0.852790 
2.684036 26.985329 -69.760437 255 0 0 -0.519994 0.048533 -0.852790 
3.216003 26.985329 -70.050598 255 0 0 -0.519994 0.048533 -0.852790 
3.747971 27.033684 -70.389099 255 0 0 -0.519994 0.048533 -0.852790 
4.279939 27.082039 -70.727600 255 0 0 -0.519994 0.048533 -0.852790 
4.811905 27.130409 -71.017761 255 0 0 -0.519994 0.048533 -0.852790 
5.343873 27.130409 -71.356384 255 0 0 -0.519994 0.048533 -0.852790 
5.875840 27.178764 -71.646545 255 0 0 -0.519994 0.048533 -0.852790 
6.407806 27.227135 -71.936707 255 0 0 -0.519994 0.048533 -0.852790 
6.939789 27.227135 -72.226868 255 0 0 -0.519994 0.048533 -0.852790 
7.471756 27.275490 -72.517029 255 0 0 -0.519994 0.048533 -0.852790 
8.003723 27.323845 -72.855530 255 0 0 -0.519994 0.048533 -0.852790 
8.535690 27.372215 -73.145691 255 0 0 -0.519994 0.048533 -0.852790 
9.067657 27.372215 -73.484192 255 0 0 -0.519994 0.048533 -0.852790 
9.599625 27.420570 -73.822693 255 0 0 -0.519994 0.048533 -0.852790 
10.131593 27.468925 -74.161316 255 0 0 -0.519994 0.048533 -0.852790 
10.663560 27.517296 -74.499817 255 0 0 -0.519994 0.048533 -0.852790 
11.195526 27.517296 -74.789978 255 0 0 -0.519994 0.048533 -0.852790 
11.727509 27.565651 -75.128479 255 0 0 -0.519994 0.048533 -0.852790 
12.259477 27.614021 -75.418640 255 0 0 -0.519994 0.048533 -0.852790 
12.791444 27.662376 -75.757141 255 0 0 -0.519994 0.048533 -0.852790 
13.323410 27.662376 -76.047302 255 0 0 -0.519994 0.048533 -0.852790 
13.855377 27.710732 -76.385803 255 0 0 -0.518422 0.095687 -0.849755 
14.387344 27.759102 -76.675964 255 0 0 -0.518422 0.095687 -0.849755 
14.870956 27.807457 -77.014587 255 0 0 -0.482601 0.097652 -0.870380 
15.402924 27.807457 -77.304749 255 0 0 -0.481083 0.143889 -0.864786 
15.934892 27.855812 -77.643250 255 0 0 -0.478628 0.189364 -0.857355 
16.466858 27.904182 -77.933411 255 0 0 -0.478628 0.189364 -0.857355 
16.998825 27.904182 -78.223572 255 0 0 -0.472501 0.235491 -0.849286 
17.530792 27.952538 -78.465393 255 0 0 -0.427820 0.286747 -0.857174 
18.062759 28.000908 -78.755554 255 0 0 -0.439679 0.341972 -0.830504 
18.594742 28.000908 -79.045715 255 0 0 -0.439679 0.341972 -0.830504 
19.126709 28.049263 -79.335876 255 0 0 -0.470333 0.377229 -0.797800 
19.658676 28.097618 -79.626038 255 0 0 -0.488259 0.390932 -0.780241 
20.190643 28.097618 -79.916199 255 0 0 -0.488259 0.390932 -0.780241 
20.722610 28.145988 -80.254700 255 0 0 -0.521950 0.382113 -0.762600 
21.254578 28.194344 -80.593201 255 0 0 -0.521950 0.382113 -0.762600 
21.738190 28.242699 -80.931824 255 0 0 -0.576148 0.385740 -0.720596 
22.270157 28.291069 -81.270325 255 0 0 -0.586978 0.343081 -0.733316 
22.802124 28.291069 -81.657166 255 0 0 -0.626871 0.290188 -0.723066 
23.285736 28.339424 -81.995667 255 0 0 -0.612853 0.236677 -0.753919 
23.817703 28.387794 -82.334290 255 0 0 -0.618142 0.191732 -0.762325 
24.349670 28.436150 -82.721130 255 0 0 -0.618142 0.191732 -0.762325 
24.833282 28.484505 -83.011292 255 0 0 -0.570343 0.144447 -0.808606 
25.365250 28.484505 -83.349792 255 0 0 -0.574928 0.097028 -0.812430 
25.897202 28.532875 -83.688293 255 0 0 -0.574928 0.097028 -0.812430 
26.429184 28.581230 -83.978455 255 0 0 -0.519994 0.048533 -0.852790 
26.961166 28.629585 -84.268616 255 0 0 -0.519994 0.048533 -0.852790 
27.444748 28.629585 -84.607239 255 0 0 -0.519994 0.048533 -0.852790 
27.976730 28.677956 -84.945740 255 0 0 -0.519994 0.048533 -0.852790 
28.508713 28.726311 -85.235901 255 0 0 -0.519994 0.048533 -0.852790 
29.040665 28.774681 -85.574402 255 0 0 -0.519994 0.048533 -0.852790 
29.524277 28.774681 -85.864563 255 0 0 -0.519994 0.048533 -0.852790 
30.056259 28.823036 -86.154724 255 0 0 -0.519994 0.048533 -0.852790 
30.588211 28.871391 -86.493225 255 0 0 -0.519994 0.048533 -0.852790 
31.120193 28.919762 -86.783386 255 0 0 -0.519994 0.048533 -0.852790 
31.603775 28.919762 -87.122009 255 0 0 -0.519994 0.048533 -0.852790 
32.135757 28.968117 -87.460510 255 0 0 -0.519994 0.048533 -0.852790 
32.667740 29.016472 -87.750671 255 0 0 -0.519994 0.048533 -0.852790 
33.199692 29.016472 -88.089172 255 0 0 -0.519994 0.048533 -0.852790 
33.683304 29.064842 -88.379333 255 0 0 -0.519994 0.048533 -0.852790 
34.215286 29.113197 -88.717834 255 0 0 -0.485314 0.048119 -0.873015 
34.747238 29.161568 -89.007996 255 0 0 -0.426685 0.047110 -0.903172 
35.279221 29.161568 -89.298157 255 0 0 -0.388005 0.048997 -0.920354 
35.811172 29.209923 -89.491638 255 0 0 -0.194696 0.097968 -0.975959 
36.343155 29.209923 -89.588318 255 0 0 0.001065 0.094759 -0.995500 
36.971848 29.209923 -89.491638 255 0 0 0.240530 0.095448 -0.965937 
37.552170 29.161568 -89.249817 255 0 0 0.482601 0.097652 -0.870380 
38.229233 29.113197 -88.814636 255 0 0 0.595795 0.100513 -0.796822 
38.954636 29.064842 -88.185852 255 0 0 0.679793 0.098372 -0.726777 
39.680038 28.968117 -87.363708 255 0 0 0.751689 0.101500 -0.651660 
40.453812 28.871391 -86.396545 255 0 0 0.772967 0.097899 -0.626848 
41.227585 28.726311 -85.284241 255 0 0 0.796822 0.100513 -0.595795 
42.049728 28.581230 -84.075256 255 0 0 0.796822 0.100513 -0.595795 
42.871872 28.436150 -82.769470 255 0 0 0.836039 0.099289 -0.539612 
43.693985 28.291069 -81.463684 255 0 0 0.836039 0.099289 -0.539612 
44.564499 28.145988 -80.061218 255 0 0 0.836039 0.099289 -0.539612 
45.434982 27.952538 -78.658752 255 0 0 0.836039 0.099289 -0.539612 
46.305466 27.807457 -77.207947 255 0 0 0.836039 0.099289 -0.539612 
47.127609 27.662376 -75.805481 255 0 0 0.836039 0.099289 -0.539612 
47.998093 27.468925 -74.403015 255 0 0 0.836039 0.099289 -0.539612 
48.868607 27.323845 -73.000549 255 0 0 0.836039 0.099289 -0.539612 
49.739090 27.178764 -71.549744 255 0 0 0.836039 0.099289 -0.539612 
50.609573 26.985329 -70.098938 255 0 0 0.836039 0.099289 -0.539612 
51.480087 26.840248 -68.599792 255 0 0 0.836039 0.099289 -0.539612 
52.398941 26.646797 -67.100525 255 0 0 0.836039 0.099289 -0.539612 
53.124344 26.598442 -66.375183 255 0 0 0.836039 0.099289 -0.539612 
-72.130127 22.632851 -26.042297 255 0 0 -0.094439 0.047775 -0.994384 
-71.549805 22.632851 -26.042297 255 0 0 -0.186312 0.046281 -0.981400 
-70.921112 22.632851 -26.042297 255 0 0 -0.242546 0.048017 -0.968951 
-70.340775 22.632851 -26.187317 255 0 0 -0.286225 0.046653 -0.957026 
-69.760452 22.681206 -26.429138 255 0 0 -0.388005 0.048997 -0.920354 
-69.180115 22.681206 -26.719299 255 0 0 -0.464599 0.047686 -0.884236 
-68.648148 22.729576 -27.057800 255 0 0 -0.519994 0.048533 -0.852790 
-68.067825 22.777931 -27.396423 255 0 0 -0.519994 0.048533 -0.852790 
-67.487488 22.826302 -27.734924 255 0 0 -0.519994 0.048533 -0.852790 
-66.955521 22.826302 -28.073425 255 0 0 -0.485314 0.048119 -0.873015 
-66.375198 22.874657 -28.411926 255 0 0 -0.464780 0.094079 -0.880414 
-65.794861 22.923012 -28.702087 255 0 0 -0.386776 0.097036 -0.917054 
-65.214539 22.923012 -28.895569 255 0 0 -0.341781 0.145291 -0.928481 
-64.634201 22.971382 -29.089050 255 0 0 -0.189942 0.238437 -0.952402 
-64.053879 22.971382 -29.185730 255 0 0 -0.048111 0.344582 -0.937523 
-63.425186 22.971382 -29.137390 255 0 0 0.099541 0.444432 -0.890265 
-62.844849 22.971382 -29.040588 255 0 0 0.239732 0.527410 -0.815088 
-62.216156 22.923012 -28.798767 255 0 0 0.343081 0.586978 -0.733316 
-61.539108 22.874657 -28.411926 255 0 0 0.453787 0.604492 -0.654727 
-60.910416 22.826302 -27.928284 255 0 0 0.492308 0.640168 -0.589761 
-60.233368 22.777931 -27.347961 255 0 0 0.506585 0.658056 -0.557076 
-59.556320 22.681206 -26.622620 255 0 0 0.537868 0.685321 -0.490951 
-58.830902 22.584496 -25.752136 255 0 0 0.551481 0.701430 -0.451514 
-58.105499 22.487770 -24.784851 255 0 0 0.562499 0.717557 -0.410740 
-57.380081 22.342690 -23.720886 255 0 0 0.572855 0.732797 -0.367214 
-56.654678 22.245964 -22.608704 255 0 0 0.586978 0.733316 -0.343081 
-55.880905 22.100883 -21.351257 255 0 0 0.586978 0.733316 -0.343081 
-55.155487 21.955803 -20.190613 255 0 0 0.597031 0.744288 -0.299316 
-54.381714 21.810722 -18.981628 255 0 0 0.597031 0.744288 -0.299316 
